# .PCD v0.7 - Point Cloud Data file format
VERSION 0.7
FIELDS x y z
SIZE 4 4 4
TYPE F F F
COUNT 1 1 1
WIDTH 1708
HEIGHT 1
VIEWPOINT 0 0 0 1 0 0 0
POINTS 1708
DATA ascii
-4.871565 6.477426 7.151312
-4.874179 6.467514 7.173613
-4.822764 6.479630 7.319434
-4.857977 6.430467 7.172754
-4.817588 6.456330 7.332167
-4.855004 6.413013 7.186645
-4.822289 6.448878 7.357908
-4.852031 6.396914 7.199259
-4.818211 6.430933 7.368885
-4.836236 6.348547 7.215212
-4.802543 6.380772 7.385792
-4.826577 6.322143 7.218810
-4.815996 6.384834 7.425070
-4.809882 6.360597 7.438826
-4.709350 6.212362 7.297057
-4.790736 6.480174 7.414662
-4.815805 6.340137 7.481729
-4.805119 6.485834 7.455794
-4.784771 6.444104 7.442559
-4.777590 6.418320 7.454767
-4.782198 6.411928 7.478312
-4.769738 6.363208 7.498649
-4.749441 6.321709 7.484813
-4.780175 6.982140 7.586565
-4.737502 6.906752 7.536767
-4.780422 6.954028 7.630877
-4.754569 6.888651 7.628277
-4.781745 6.914218 7.692155
-4.790275 6.659973 7.506660
-4.756903 6.861793 7.676920
-4.787718 6.804158 7.508728
-4.741397 6.824984 7.671397
-4.799227 6.646098 7.557491
-4.806962 6.819233 7.557412
-4.751896 6.827445 7.706936
-4.738975 6.975702 7.673865
-4.758652 6.987327 7.732830
-4.782641 6.593356 7.573705
-4.703497 6.990602 7.913677
-4.755476 6.715676 7.519620
-4.728242 6.763534 7.711682
-4.729860 6.931893 7.704322
-4.774306 6.567551 7.579390
-4.765175 6.715471 7.554423
-4.722113 6.740312 7.721144
-4.721685 6.905559 7.710840
-4.768210 6.542834 7.593626
-4.774946 6.713296 7.594541
-4.729528 6.734555 7.758141
-4.727957 6.897826 7.747090
-4.769411 6.529553 7.612238
-4.762422 6.683091 7.592105
-4.722363 6.710515 7.765141
-4.712586 6.862338 7.740235
-4.780261 6.530192 7.648644
-4.750963 6.652686 7.592910
-4.720387 6.693153 7.781331
-4.712650 6.848063 7.760182
-4.769806 6.501370 7.650654
-4.685260 6.888688 7.987961
-4.761693 6.653622 7.629442
-4.727736 6.689085 7.813022
-4.713740 6.836237 7.780815
-4.673162 6.852043 7.990510
-4.737655 6.603471 7.614835
-4.708146 6.642740 7.802955
-4.718965 6.826646 7.815290
-4.769481 6.635382 7.684353
-4.770353 6.888556 7.919789
-4.751649 6.594547 7.672900
-4.691363 6.758812 7.807241
-4.738102 6.557480 7.673061
-4.716751 6.610494 7.878964
-4.690431 6.740856 7.830578
-4.739319 6.544741 7.694080
-4.729245 6.613307 7.919369
-4.703818 6.744862 7.873434
-4.764764 6.566424 7.754210
-4.700797 6.727283 7.886673
-4.712183 6.711996 7.950518
-4.693808 6.669928 7.939443
-4.680561 6.638562 7.934030
-4.688536 7.334687 8.001232
-4.675447 7.282158 8.027345
-4.669629 7.454584 8.012365
-4.622924 7.475066 8.217900
-4.662555 7.247238 8.026079
-4.613163 7.445033 8.221408
-4.670291 7.245446 8.059870
-4.647902 7.392365 8.015916
-4.628759 7.438469 8.298807
-4.667918 7.392535 8.100114
-4.603786 7.382105 8.275991
-4.637638 7.328671 8.069154
-4.599631 7.358327 8.295848
-4.658756 7.345670 8.133298
-4.603196 7.349730 8.323189
-4.637241 7.297408 8.115986
-4.580166 7.298449 8.301644
-4.617505 7.071302 8.102687
-4.630291 7.271551 8.124927
-4.621700 7.349158 8.399872
-4.584249 7.474755 8.332150
-4.633044 7.080340 8.150925
-4.521888 7.486166 8.495008
-4.632068 7.259501 8.149261
-4.585279 7.273373 8.360342
-4.572697 7.436629 8.336389
-4.629925 7.057654 8.172367
-4.625041 7.230714 8.164316
-4.599261 7.281201 8.406809
-4.681455 7.023838 8.017219
-4.578060 7.431069 8.366349
-4.625892 7.037914 8.183497
-4.647146 7.253163 8.222471
-4.608491 7.279677 8.446004
-4.566381 7.397971 8.369598
-4.638261 7.223296 8.228473
-4.595854 7.240366 8.448008
-4.561416 7.371574 8.385680
-4.601284 7.232621 8.480168
-4.565691 7.364467 8.418340
-4.565411 7.350256 8.438084
-4.561383 7.323409 8.456454
-4.561101 7.307465 8.477538
-4.554127 7.281863 8.488076
-4.609064 7.080664 8.311418
-4.588641 7.034448 8.294369
-4.643410 7.099690 8.418622
-4.579093 7.627349 8.537181
-4.551108 7.565728 8.506129
-4.539713 7.530405 8.507591
-4.538177 7.706486 8.531011
-4.546687 7.703776 8.575978
-4.506266 7.620100 8.520832
-4.513156 7.615658 8.557189
-4.510756 7.593335 8.581879
-4.503101 7.565826 8.588584
-4.509973 7.562745 8.623475
-4.492150 7.514157 8.618198
-4.499920 7.510783 8.656264
-4.502045 7.500768 8.685158
-4.494192 7.926640 8.513179
-4.501756 7.929150 8.547127
-4.486810 7.888821 8.544871
-4.490570 7.885907 8.574750
-4.480321 7.854927 8.574841
-4.484305 7.850860 8.601913
-4.482717 7.834991 8.624460
-4.485993 7.988285 8.568721
-4.473370 7.806396 8.626340
-4.480841 7.968648 8.582393
-4.474679 7.797457 8.648193
-4.483004 7.962483 8.606175
-4.467768 7.774572 8.657966
-4.473680 7.933796 8.608398
-4.512024 7.509338 8.504422
-4.414117 7.999897 8.845363
-4.461095 7.747333 8.667864
-4.471181 7.915523 8.629159
-4.415253 7.988873 8.869134
-4.537915 7.690598 8.513638
-4.462165 7.738440 8.693206
-4.471325 7.906091 8.652248
-4.407517 7.965641 8.875959
-4.532984 7.670968 8.523124
-4.458153 7.720996 8.703509
-4.462899 7.879799 8.655250
-4.403507 7.945124 8.889194
-4.528772 7.653910 8.537084
-4.458566 7.709451 8.724268
-4.456875 7.858436 8.666935
-4.402632 7.929253 8.914513
-4.524561 7.632724 8.554678
-4.450783 7.681559 8.735010
-4.457015 7.845541 8.692982
-4.393487 7.900168 8.915361
-4.520545 7.613772 8.566500
-4.445892 7.660669 8.745172
-4.459158 7.836367 8.718173
-4.396033 7.895591 8.943071
-4.515623 7.593257 8.576538
-4.448952 7.654470 8.770390
-4.448988 7.806918 8.717473
-4.390316 7.869405 8.955651
-4.505978 7.563548 8.582775
-4.442941 7.629583 8.784482
-4.447364 7.790739 8.739954
-4.389435 7.856773 8.977804
-4.511741 7.562485 8.616485
-4.381353 7.998717 8.908669
-4.440701 7.613223 8.799818
-4.441349 7.769245 8.750415
-4.382869 7.832308 8.984716
-4.505013 7.538827 8.622890
-4.379897 7.983693 8.926447
-4.432288 7.586126 8.802732
-4.433831 7.743638 8.755504
-4.499904 7.515909 8.638437
-4.384925 7.978695 8.964143
-4.432574 7.571337 8.826276
-4.438344 7.738339 8.790895
-4.361784 7.767880 8.987459
-4.364799 7.930043 8.941459
-4.432095 7.558784 8.844326
-4.429079 7.710449 8.791623
-4.365585 7.920587 8.967234
-4.426334 7.536225 8.852407
-4.433581 7.708239 8.823281
-4.364975 7.908847 8.985879
-4.422336 7.516694 8.863998
-4.427824 7.685647 8.831707
-4.353899 7.873207 8.990699
-4.422693 7.661294 8.848364
-4.424809 7.653321 8.871879
-4.418311 7.627616 8.875612
-4.411439 7.606099 8.883417
-4.407188 7.583152 8.901634
-4.410166 7.576522 8.926859
-4.403554 7.551442 8.933885
-4.399304 7.529233 8.951233
-4.397922 7.515907 8.967448
-4.400887 7.508202 8.993352
-4.744456 6.448422 7.631523
-4.753171 6.447419 7.663175
-4.786800 6.404019 7.504101
-4.756850 6.422306 7.710669
-4.754917 6.405060 7.726209
-4.758294 6.395734 7.749815
-4.513103 7.453269 8.507100
-4.521031 7.451822 8.543507
-4.514257 7.425014 8.552596
-4.525667 7.425481 8.603148
-4.523479 7.406162 8.620954
-4.699421 7.374176 8.682977
-4.518541 7.383091 8.632704
-4.520756 7.368036 8.665622
-4.525891 7.360603 8.697492
-4.504479 7.308717 8.678520
-4.551038 7.262123 8.503095
-4.485350 7.457763 8.674160
-4.544212 7.231422 8.515189
-4.503767 7.273283 8.722500
-4.480433 7.428709 8.691022
-4.554994 7.234240 8.560128
-4.508709 7.266494 8.757093
-4.497928 7.443387 8.750671
-4.522033 7.166516 8.518289
-4.527520 7.281772 8.815080
-4.485774 7.407976 8.748249
-4.508890 7.235316 8.800224
-4.466404 7.359738 8.732172
-4.607268 7.266904 8.726801
-4.500311 7.200111 8.809163
-4.457885 7.325564 8.740566
-4.536108 7.137648 8.612182
-4.486267 7.160332 8.803689
-4.469226 7.327487 8.785680
-4.551655 7.147205 8.662625
-4.472435 7.317520 8.813310
-4.500653 7.031501 8.613368
-4.470607 7.081957 8.840423
-4.450705 7.246319 8.820499
-4.508743 7.027418 8.650749
-4.451869 7.037770 8.826528
-4.471918 7.264041 8.885502
-4.511100 7.011991 8.682861
-4.463336 7.035367 8.874182
-4.438912 7.191432 8.847072
-4.452975 7.003242 8.873977
-4.458300 7.207625 8.907137
-4.455195 7.185253 8.923322
-4.486757 7.021819 8.985993
-4.433225 7.132175 8.901242
-4.435518 7.121274 8.925804
-4.432422 7.095418 8.944505
-4.439194 7.088881 8.980540
-4.507832 7.493274 8.518112
-4.512039 7.489011 8.544710
-4.505287 7.465458 8.551028
-4.496535 7.437366 8.558723
-4.498909 7.428250 8.583206
-4.493078 7.407019 8.590405
-4.492532 7.392559 8.612794
-4.485795 7.368952 8.618847
-4.484521 7.354420 8.635465
-4.477608 7.328426 8.647049
-4.477242 7.316168 8.664670
-4.496801 7.499187 8.651037
-4.475965 7.301533 8.681199
-4.492600 7.481890 8.664646
-4.473780 7.287200 8.695217
-4.493207 7.470690 8.682475
-4.470502 7.266247 8.714442
-4.492616 7.454403 8.707397
-4.418099 7.493804 8.881991
-4.466504 7.247868 8.723814
-4.486807 7.433016 8.714557
-4.407956 7.464525 8.880239
-4.461602 7.227147 8.733051
-4.481002 7.410791 8.722379
-4.416257 7.466022 8.916775
-4.454890 7.204288 8.737954
-4.484210 7.404487 8.747216
-4.407875 7.439740 8.918512
-4.456142 7.190616 8.765974
-4.472806 7.370773 8.749923
-4.407150 7.423707 8.942503
-4.449436 7.167732 8.770778
-4.472409 7.358366 8.767590
-4.402283 7.403400 8.951324
-4.451775 7.158745 8.794273
-4.466414 7.337014 8.778038
-4.397417 7.381362 8.961526
-4.446692 7.135433 8.808876
-4.469611 7.326297 8.806342
-4.394063 7.360583 8.980262
-4.446314 7.122783 8.826221
-4.468310 7.312270 8.822156
-4.393577 7.347651 8.998003
-4.439617 7.100002 8.831527
-4.459623 7.287219 8.826393
-4.437245 7.081843 8.850743
-4.457426 7.267421 8.843836
-4.391419 7.476856 8.998780
-4.426950 7.051375 8.848330
-4.455922 7.253357 8.863078
-4.429275 7.042972 8.871018
-4.452827 7.236253 8.875160
-4.426192 7.024961 8.883421
-4.450628 7.219748 8.889711
-4.428511 7.012174 8.909474
-4.445540 7.197125 8.903702
-4.442447 7.178241 8.917054
-4.433990 7.152268 8.918071
-4.438051 7.142601 8.948654
-4.432075 7.121843 8.957879
-4.431663 7.108074 8.975870
-4.421435 7.074025 8.977092
-4.418349 7.056729 8.988821
-4.686228 6.857238 8.032447
-4.663420 6.983563 8.008559
-4.685293 6.997865 8.070260
-4.657308 6.941817 8.044750
-4.772728 6.661216 8.011027
-4.653006 6.859645 8.142498
-4.720474 6.941730 8.284328
-5.331224 5.621618 7.518126
-5.178154 5.654455 7.503084
-5.345675 5.619747 7.559508
-5.267498 5.657198 7.734913
-5.262064 5.636773 7.742939
-5.115963 5.629976 7.521732
-5.329536 5.646863 7.636428
-5.260219 5.620955 7.755697
-5.127209 5.629102 7.553838
-5.266740 5.609875 7.783667
-5.291175 5.621416 7.836139
-5.160619 5.618347 7.652526
-4.507093 6.990389 8.695438
-4.455340 6.989603 8.900644
-4.512131 6.758836 8.748438
-4.516417 6.957137 8.775664
-4.436461 6.926562 8.904820
-4.501445 6.723878 8.753623
-4.510552 6.927403 8.788462
-4.461502 6.945011 8.980062
-4.508681 6.717418 8.788887
-4.494496 6.885259 8.778416
-4.439370 6.892619 8.956848
-4.504808 6.693998 8.798568
-4.483085 6.852039 8.776041
-4.421788 6.849184 8.941353
-4.500679 6.668104 8.816710
-4.479869 6.826620 8.797486
-4.416724 6.820428 8.959077
-4.482660 6.625360 8.800683
-4.479575 6.810502 8.816947
-4.409992 6.989564 8.991030
-4.486145 6.613033 8.828434
-4.466333 6.773639 8.811271
-4.481219 6.584725 8.841993
-4.476209 6.767053 8.855474
-4.468829 6.548740 8.838036
-4.465748 6.734434 8.855153
-4.463912 6.525537 8.847620
-4.468223 6.723357 8.878995
-4.460862 6.504218 8.861509
-4.456849 6.688497 8.877303
-4.553088 6.560109 8.763165
-4.446260 6.653308 8.882113
-4.444123 6.634143 8.897518
-4.451200 6.627089 8.932811
-4.453662 6.609548 8.961329
-4.448757 6.584346 8.972295
-4.419130 6.983149 8.909648
-4.416051 6.965930 8.921255
-4.408390 6.938481 8.927307
-4.416988 6.938967 8.963456
-4.410317 6.914222 8.968925
-4.408136 6.894004 8.985569
-4.402368 6.872399 8.991443
-4.445061 7.082507 9.013398
-4.443542 7.059254 9.039193
-4.393088 7.333813 9.016434
-4.385362 7.305518 9.025964
-4.382253 7.287189 9.038863
-4.387171 7.458830 9.012342
-4.380016 7.271178 9.051847
-4.382314 7.438395 9.021214
-4.320440 7.479604 9.247824
-4.376035 7.250464 9.063547
-4.381797 7.423665 9.040523
-4.319535 7.462549 9.271279
-4.370939 7.227498 9.078312
-4.378417 7.402692 9.059361
-4.319773 7.448740 9.292515
-4.368704 7.210534 9.092884
-4.373566 7.381327 9.068814
-4.314951 7.428843 9.301272
-4.370823 7.201688 9.115915
-4.368716 7.360825 9.077510
-4.310975 7.404028 9.316110
-4.369456 7.181706 9.135743
-4.365339 7.339756 9.096197
-4.297438 7.368402 9.309910
-4.363739 7.158839 9.142854
-4.363088 7.323761 9.110983
-4.308610 7.374333 9.354299
-4.360632 7.139420 9.156138
-4.366887 7.316137 9.139250
-4.298750 7.339225 9.356030
-4.356409 7.117584 9.170767
-4.355733 7.282618 9.139630
-4.299821 7.327520 9.378223
-4.288486 7.479254 9.323149
-4.357647 7.106174 9.192544
-4.358661 7.274297 9.165323
-4.287309 7.292838 9.370020
-4.419513 7.046589 9.013230
-4.279192 7.450857 9.326350
-4.347598 7.076086 9.190183
-4.352957 7.251334 9.172628
-4.295091 7.288106 9.410540
-4.419988 7.030650 9.034651
-4.281897 7.437724 9.355978
-4.345982 7.057570 9.211918
-4.350441 7.231472 9.192901
-4.292799 7.269577 9.425923
-4.269279 7.404351 9.350950
-4.342880 7.038908 9.224305
-4.346465 7.211383 9.203790
-4.286316 7.245648 9.430540
-4.270313 7.392696 9.373245
-4.342378 7.025375 9.241574
-4.346797 7.199395 9.223184
-4.280368 7.223023 9.440554
-4.268014 7.375150 9.388122
-4.342822 7.179369 9.234694
-4.272220 7.190787 9.445474
-4.267892 7.359117 9.414254
-4.336863 7.154470 9.246696
-4.271606 7.176031 9.464413
-4.270747 7.348835 9.438070
-4.332892 7.133410 9.258101
-4.276845 7.172005 9.495096
-4.268443 7.332068 9.452156
-4.330641 7.116977 9.271808
-4.259178 7.303597 9.454890
-4.327532 7.097304 9.284990
-4.266002 7.297159 9.493660
-4.328445 7.082818 9.312391
-4.244626 7.247262 9.464621
-4.319332 7.054920 9.310046
-4.317082 7.036590 9.324969
-4.241692 7.212794 9.498929
-4.316546 7.022953 9.342931
-4.317719 7.006588 9.368007
-4.431753 6.828870 9.009111
-4.426862 6.803476 9.020633
-4.414064 6.978443 9.021423
-4.442771 6.806781 9.077559
-4.423498 6.971410 9.066270
-4.423415 6.758923 9.059134
-4.402519 6.921144 9.044130
-4.405882 6.715711 9.042974
-4.406583 6.911540 9.073109
-4.401907 6.691666 9.056056
-4.399027 6.882734 9.078247
-4.409666 6.682070 9.096056
-4.394155 6.852787 9.093184
-4.405689 6.659667 9.107761
-4.400886 6.847180 9.127690
-4.390895 6.619008 9.098078
-4.386203 6.806131 9.118645
-4.433783 6.661615 9.212282
-4.402524 6.812065 9.179878
-4.372708 6.747407 9.138718
-4.405565 6.864088 9.016479
-4.402487 6.841475 9.030812
-4.398514 6.821772 9.040937
-4.407999 6.997188 9.029192
-4.397227 6.808139 9.055956
-4.410254 6.988382 9.051857
-4.396834 6.794003 9.073474
-4.412294 6.980328 9.077374
-4.334081 6.998264 9.243362
-4.389091 6.765922 9.081478
-4.402987 6.947674 9.079953
-4.330982 6.975984 9.258319
-4.383337 6.743357 9.087687
-4.399016 6.927912 9.090244
-4.331345 6.961988 9.277707
-4.384033 6.729760 9.104116
-4.399485 6.916086 9.109127
-4.327382 6.942695 9.287352
-4.382744 6.713232 9.120277
-4.397288 6.899227 9.123735
-4.327741 6.928614 9.307692
-4.375905 6.687364 9.129270
-4.392221 6.876143 9.136893
-4.320935 6.902242 9.317158
-4.372140 6.666771 9.136189
-4.394456 6.867002 9.159446
-4.323016 6.892661 9.339881
-4.369071 6.647411 9.147458
-4.384287 6.836433 9.157110
-4.314743 6.864521 9.341256
-4.364220 6.626167 9.155264
-4.386519 6.826335 9.180275
-4.312510 6.847017 9.355140
-4.361845 6.607218 9.174119
-4.385208 6.806191 9.199200
-4.312001 6.827743 9.376074
-4.362536 6.593404 9.190341
-4.372399 6.773236 9.189713
-4.304600 6.802791 9.377841
-4.309476 6.980104 9.368311
-4.365694 6.584348 9.215114
-4.371092 6.757472 9.205270
-4.302369 6.784308 9.392262
-4.303805 6.956045 9.375543
-4.368899 6.739406 9.219561
-4.307019 6.778682 9.420225
-4.303267 6.940370 9.394043
-4.369141 6.724409 9.243648
-4.294768 6.910120 9.400385
-4.360771 6.698416 9.243337
-4.297643 6.901750 9.425054
-4.360343 6.683011 9.261301
-4.294540 6.881790 9.437774
-4.359032 6.663523 9.279264
-4.282910 6.845254 9.432429
-4.373576 6.671196 9.329501
-4.284927 6.833552 9.456450
-4.860692 3.994686 6.043395
-4.880038 3.998999 6.079111
-5.185542 3.847417 6.005260
-4.872423 3.981227 6.078901
-4.888991 3.984662 6.110797
-4.871702 3.955376 6.099609
-5.160887 3.792175 6.006750
-4.870299 3.942940 6.108786
-5.168275 3.788031 6.025572
-5.266706 3.723286 6.003373
-5.029243 3.798303 6.016130
-4.868217 3.929102 6.115796
-5.177807 3.783063 6.046065
-4.899530 3.824640 6.004110
-4.903843 3.945312 6.006303
-5.263858 3.707125 6.012216
-5.042893 3.793805 6.043761
-4.880626 3.924917 6.144358
-5.195401 3.782399 6.078780
-4.898844 3.809255 6.014468
-4.903856 3.931322 6.019097
-5.258723 3.691470 6.014377
-5.048682 3.786934 6.061310
-4.858508 3.894983 6.127495
-5.204924 3.776677 6.099668
-4.908322 3.805726 6.035571
-4.896167 3.912570 6.019540
-5.258164 3.669926 6.032321
-5.069537 3.779841 6.106075
-4.835704 3.854600 6.118374
-5.237580 3.771080 6.006404
-4.853011 3.986471 6.141896
-5.208682 3.756999 6.122136
-4.923139 3.794014 6.073909
-4.837293 3.987695 6.279586
-4.895489 3.890483 6.037673
-5.237514 3.641750 6.020020
-5.081042 3.774139 6.132435
-4.858466 3.857762 6.158812
-5.230992 3.752001 6.009449
-4.844741 3.966304 6.143285
-5.214586 3.746875 6.141431
-4.931602 3.786345 6.096868
-4.828455 3.965843 6.279705
-5.115728 3.790997 6.020282
-4.895501 3.876387 6.050336
-5.236835 3.629236 6.028180
-5.097532 3.774258 6.160812
-4.857064 3.844593 6.168159
-5.239954 3.747258 6.030252
-4.840589 3.950915 6.149350
-5.210977 3.732992 6.146343
-4.939347 3.780196 6.115847
-4.850021 3.971461 6.319520
-5.119392 3.781738 6.033918
-4.899705 3.867939 6.066712
-5.248023 3.625579 6.049762
-5.109722 3.771660 6.184610
-4.857742 3.833449 6.178113
-5.239270 3.735313 6.038274
-4.982321 3.791320 6.023364
-4.827548 3.928553 6.141908
-5.211740 3.721856 6.156068
-4.966774 3.789775 6.159090
-4.826306 3.939916 6.297680
-5.128855 3.777343 6.054082
-4.890626 3.849225 6.064455
-5.249628 3.612987 6.063171
-5.122640 3.767713 6.212779
-4.881160 3.837598 6.220805
-5.239375 3.721761 6.050215
-5.006576 3.795810 6.065373
-4.856288 3.937797 6.191699
-5.205981 3.703787 6.161036
-5.007548 3.806675 6.221631
-4.834339 3.931796 6.321209
-5.149220 3.778828 6.090328
-4.885050 3.830606 6.070015
-5.237085 3.592147 6.057434
-5.154858 3.779197 6.261525
-4.872183 3.817485 6.218062
-5.241640 3.712304 6.060986
-5.018006 3.793252 6.089930
-4.850100 3.919831 6.193768
-5.203831 3.689333 6.167938
-5.056035 3.831445 6.291876
-4.839030 3.922456 6.337471
-5.157982 3.773349 6.111676
-4.896235 3.827588 6.095096
-5.249749 3.588779 6.081080
-5.160602 3.771711 6.279170
-4.956233 3.872339 6.337219
-4.781746 3.997134 6.435622
-5.229948 3.692595 6.057665
-5.021584 3.783844 6.103627
-4.824031 3.886484 6.171424
-5.212641 3.684047 6.188834
-5.030728 3.800735 6.271163
-4.818669 3.893415 6.321908
-5.167431 3.768127 6.132247
-4.898334 3.817110 6.107133
-4.799304 3.998563 6.297990
-5.234245 3.566498 6.071442
-5.159895 3.759250 6.287234
-4.901769 3.818391 6.276022
-4.778367 3.981490 6.440887
-5.232212 3.682689 6.069026
-5.033698 3.781476 6.127433
-4.841131 3.888709 6.202706
-5.207577 3.668655 6.191488
-5.056713 3.808624 6.312891
-4.822008 3.884160 6.334564
-5.188468 3.772957 6.165353
-4.903224 3.809384 6.122303
-4.811292 3.997591 6.324677
-5.234368 3.552796 6.082988
-5.154898 3.739983 6.292161
-4.947196 3.839310 6.347410
-4.786177 3.972987 6.464665
-5.236737 3.672173 6.086030
-5.059339 3.787504 6.170364
-4.853411 3.884140 6.231354
-5.205427 3.652350 6.199367
-5.035629 3.777761 6.298821
-4.816521 3.864852 6.340078
-5.182728 3.754828 6.170444
-4.893458 3.787374 6.122449
-4.804479 3.976505 6.329111
-5.245543 3.548256 6.104879
-5.167787 3.737600 6.318582
-4.913418 3.799608 6.313462
-4.784713 3.959129 6.473258
-5.234578 3.658478 6.092525
-5.075009 3.787808 6.200265
-4.874606 3.888250 6.268785
-5.202583 3.638672 6.206225
-5.100919 3.814575 6.390662
-4.813103 3.849843 6.345452
-5.192918 3.750717 6.193196
-4.914397 3.791727 6.159888
-4.799732 3.959350 6.332963
-5.240417 3.534112 6.106279
-5.167079 3.725058 6.326580
-4.950558 3.817388 6.372045
-4.786629 3.949470 6.485288
-5.225841 3.641462 6.092138
-5.087107 3.785142 6.224153
-4.963506 3.948767 6.394839
-5.197522 3.623276 6.208766
-5.060176 3.772486 6.349469
-4.818423 3.842918 6.363035
-5.190772 3.737378 6.199478
-4.948582 3.807663 6.211151
-4.815115 3.960174 6.362845
-5.241218 3.522413 6.115958
-5.173520 3.717083 6.343751
-4.927810 3.786370 6.352262
-4.783249 3.933122 6.490812
-5.222211 3.626724 6.096830
-5.092091 3.776459 6.239635
-4.858788 3.851394 6.268644
-5.205561 3.617494 6.226424
-5.065079 3.763485 6.365008
-4.817707 3.829042 6.371954
-5.191522 3.725533 6.209584
-4.964620 3.807127 6.241239
-4.806962 3.940982 6.363455
-5.169242 3.698996 6.350741
-4.907112 3.755384 6.337811
-4.776493 3.911681 6.494946
-5.226733 3.616071 6.113736
-5.184499 3.830852 6.366511
-4.866944 3.844212 6.290956
-5.202717 3.600757 6.234944
-5.066459 3.749506 6.379205
-4.812223 3.809678 6.377296
-5.265654 3.522731 6.009129
-5.190125 3.709872 6.220138
-4.975762 3.801072 6.267917
-4.813565 3.931548 6.385269
-5.147097 3.670698 6.331775
-4.935304 3.764485 6.383910
-5.227520 3.604384 6.123584
-5.109172 3.762177 6.284168
-4.892220 3.851815 6.333456
-5.188928 3.578642 6.227164
-5.088194 3.752355 6.416498
-4.819604 3.802233 6.396988
-5.255991 3.505171 6.006682
-5.187281 3.696141 6.227115
-5.011995 3.817283 6.324727
-4.811501 3.917524 6.391587
-5.155686 3.666172 6.352137
-4.949727 3.763443 6.411728
-5.222418 3.590166 6.126096
-5.128357 3.765089 6.316565
-4.883300 3.832106 6.331297
-4.755219 3.993215 6.494906
-5.193361 3.570570 6.242330
-5.104311 3.752129 6.445963
-4.822935 3.792735 6.410516
-5.263638 3.500141 6.024693
-5.183689 3.681705 6.231524
-5.014071 3.806866 6.336428
-4.811395 3.906162 6.402108
-5.167836 3.661543 6.376698
-4.959299 3.758139 6.435303
-5.207801 3.568491 6.118883
-5.143984 3.764204 6.346978
-4.876404 3.814829 6.333064
-5.194121 3.558580 6.252104
-5.108482 3.744106 6.460927
-4.818800 3.776846 6.416098
-5.179400 3.666917 6.236681
-5.009857 3.791171 6.342135
-4.809332 3.891104 6.409364
-5.156421 3.638294 6.374621
-4.979214 3.758376 6.472558
-5.217420 3.560513 6.139491
-5.141852 3.746881 6.355433
-4.856554 3.783489 6.318275
-5.191279 3.541785 6.260465
-5.111969 3.730633 6.476472
-4.824827 3.765698 6.435405
-5.181595 3.653990 6.250178
-5.004964 3.771715 6.347071
-4.805205 3.872704 6.416669
-5.158568 3.627046 6.386337
-4.983271 3.749309 6.488581
-5.199867 3.536848 6.128672
-5.148948 3.740161 6.374874
-4.856500 3.771027 6.329265
-5.192040 3.529746 6.270185
-5.113331 3.718818 6.489183
-4.830131 3.757197 6.453645
-5.180198 3.641231 6.258790
-5.018864 3.770391 6.375538
-4.802420 3.857857 6.424240
-5.152149 3.610309 6.386972
-5.205069 3.528722 6.143277
-5.153914 3.732664 6.389979
-4.876285 3.774506 6.364294
-5.185531 3.513306 6.270677
-4.853678 3.764403 6.493420
-5.180945 3.629831 6.267360
-5.032079 3.768283 6.401467
-4.803037 3.846169 6.434260
-5.144598 3.592201 6.386553
-5.212526 3.522218 6.162154
-5.145391 3.714423 6.389863
-4.880321 3.765133 6.380678
-5.183883 3.620092 6.281221
-5.040393 3.762937 6.423189
-4.793557 3.825879 6.432703
-5.151027 3.580831 6.405286
-5.220665 3.512427 6.182300
-5.144678 3.698033 6.398959
-4.895995 3.761501 6.412541
-5.181739 3.602965 6.289309
-5.053599 3.756929 6.451331
-4.798191 3.813671 6.450323
-5.150319 3.567483 6.413315
-5.141833 3.683921 6.405876
-4.904119 3.756161 6.434346
-5.171674 3.584036 6.287189
-5.053551 3.744775 6.460934
-4.802098 3.804123 6.466849
-5.143916 3.535516 6.425696
-5.144663 3.657799 6.429116
-4.937446 3.754368 6.499041
-5.185719 3.567058 6.322031
-4.799928 3.775239 6.485981
-5.134652 3.517192 6.421833
-5.147490 3.647075 6.443459
-5.169882 3.543509 6.313022
-4.801879 3.763206 6.498405
-5.136798 3.506392 6.432992
-5.143940 3.633244 6.447691
-5.173514 3.533959 6.325975
-5.145348 3.618331 6.461947
-5.166344 3.513384 6.329246
-5.131879 3.596444 6.453526
-5.168531 3.503397 6.340030
-5.141086 3.590000 6.474187
-5.129742 3.566643 6.471773
-5.134695 3.556497 6.486336
-5.131852 3.542843 6.492595
-5.128307 3.528333 6.496925
-4.580418 4.931385 7.068349
-4.411955 4.925046 7.006437
-4.541513 4.875090 7.022361
-4.303197 4.967181 7.050364
-4.406588 4.903965 7.010880
-4.266015 4.906113 7.003893
-4.532557 4.946081 7.074846
-4.356605 4.928843 7.001363
-4.090917 4.513483 7.278291
-4.126405 4.533725 7.356616
-4.189140 4.512530 7.317613
-4.275394 4.594026 7.482233
-4.527181 6.338179 8.691645
-4.458745 6.479114 8.880968
-4.505877 6.287284 8.672686
-4.510994 6.478120 8.704327
-4.460355 6.465403 8.903502
-4.502853 6.267226 8.685431
-4.494630 6.438687 8.691511
-4.461961 6.450767 8.926642
-4.492547 6.418269 8.707693
-4.491323 6.397442 8.730365
-4.500639 6.393294 8.768858
-4.778999 3.901651 6.509482
-4.769010 3.880454 6.505407
-4.734951 3.986749 6.633706
-4.764905 3.864322 6.511149
-4.764990 3.988952 6.517657
-4.723100 3.963706 6.628648
-4.766819 3.849761 6.525252
-4.758264 3.967394 6.521936
-4.727534 3.951059 6.646700
-4.757429 3.829293 6.523602
-4.755479 3.952298 6.529696
-4.720866 3.931776 6.649260
-4.999048 3.748925 6.518292
-4.752735 3.813096 6.526257
-4.754743 3.939312 6.538090
-5.128028 3.717227 6.516906
-4.751178 3.944635 6.701822
-5.008594 3.743259 6.541926
-4.747315 3.795872 6.529998
-4.746712 3.919797 6.538488
-5.116773 3.696720 6.513048
-4.852230 3.750464 6.502572
-4.738036 3.920485 6.694749
-5.010615 3.728532 6.555712
-4.762434 3.792237 6.561678
-4.686796 3.997361 6.816643
-4.743353 3.900191 6.545805
-5.113248 3.677963 6.519492
-4.863635 3.743205 6.529165
-4.737288 3.902638 6.705720
-5.035997 3.733812 6.598910
-4.758332 3.776650 6.566832
-4.694132 3.990319 6.839306
-4.752374 3.894840 6.569873
-5.112527 3.664374 6.527722
-4.872961 3.737548 6.552899
-4.730619 3.884926 6.706757
-4.695663 3.982348 6.670151
-5.073637 3.733610 6.669239
-4.879616 3.843870 6.756953
-4.686781 3.954683 6.851197
-4.747543 3.863309 6.585745
-5.118763 3.640902 6.556785
-5.019307 3.820045 6.771159
-4.711576 3.840035 6.702120
-5.086899 3.741219 6.524083
-4.703681 3.960247 6.704856
-5.078393 3.723130 6.685238
-4.830617 3.791621 6.699798
-4.697402 3.949396 6.877172
-4.951731 3.751698 6.527741
-4.757290 3.857536 6.609405
-5.109639 3.620576 6.554419
-4.939716 3.745585 6.673989
-4.717292 3.830703 6.720316
-5.093795 3.733423 6.544044
-4.710629 3.952144 6.725118
-5.089273 3.719200 6.710063
-4.806129 3.758844 6.674958
-4.683991 3.924975 6.866846
-4.959828 3.746250 6.548882
-4.789876 3.872479 6.664839
-5.108195 3.607777 6.562608
-4.957825 3.746714 6.707718
-4.715254 3.816261 6.726605
-5.095850 3.722471 6.555641
-4.798480 3.748163 6.502769
-4.711690 3.941508 6.737982
-5.078925 3.694246 6.707723
-4.850810 3.776991 6.751095
-4.682466 3.905553 6.878966
-4.952919 3.724254 6.552898
-4.821130 3.880968 6.722530
-5.117269 3.598261 6.584492
-4.971147 3.739683 6.739269
-4.724096 3.805667 6.753330
-5.093006 3.705226 6.564729
-4.823770 3.751477 6.550680
-4.703773 3.917716 6.740504
-5.077447 3.682133 6.716055
-4.885666 3.791503 6.809221
-4.684732 3.895257 6.893282
-5.012186 3.756719 6.641045
-4.765385 3.822933 6.653288
-5.101831 3.575477 6.574448
-5.012117 3.757911 6.804399
-4.717436 3.788239 6.754358
-5.103402 3.700332 6.587140
-4.869091 3.775373 6.623276
-4.713277 3.912912 6.762680
-5.067104 3.660454 6.711810
-4.833497 3.736408 6.745617
-4.683969 3.879527 6.902683
-4.993727 3.729836 6.626072
-4.765954 3.809463 6.664011
-4.662604 3.992868 6.888268
-5.099710 3.560141 6.580985
-4.993878 3.729836 6.789159
-4.716689 3.773480 6.763152
-5.097113 3.681900 6.588522
-4.849648 3.746291 6.606343
-4.715087 3.899633 6.775841
-5.078714 3.652191 6.738287
-4.843872 3.728532 6.772887
-4.686232 3.864490 6.919578
-5.020882 3.734589 6.674995
-4.767092 3.794028 6.678785
-4.668591 3.981207 6.911050
-5.101787 3.545203 6.594328
-4.993729 3.714631 6.800551
-4.717777 3.757738 6.777865
-5.094267 3.664209 6.597141
-4.893267 3.764224 6.676970
-4.723831 3.890985 6.801668
-5.070379 3.632740 6.738046
-4.848398 3.718826 6.788010
-4.685468 3.849365 6.928537
-5.039845 3.735579 6.711570
-4.745984 3.763909 6.660193
-4.662808 3.961793 6.912763
-5.107334 3.536573 6.611840
-5.018532 3.718930 6.844371
-4.717030 3.742926 6.786593
-5.099098 3.654483 6.612613
-4.911228 3.764146 6.711514
-4.713353 3.868900 6.798029
-5.068270 3.618338 6.743989
-4.845588 3.703851 6.794846
-4.670813 3.824048 6.915965
-5.048640 3.729352 6.732383
-4.755713 3.760020 6.683057
-4.662525 3.949315 6.923436
-5.095426 3.515607 6.604806
-5.026441 3.712560 6.865715
-4.712412 3.727306 6.788940
-5.097641 3.641566 6.620868
-4.919834 3.758012 6.732456
-4.708756 3.851522 6.801027
-5.073016 3.607556 6.759812
-4.867234 3.706253 6.835202
-4.665502 3.805351 6.919924
-5.038985 3.709455 6.730131
-4.781697 3.767541 6.731207
-4.663009 3.934586 6.934842
-5.094705 3.501188 6.613034
-5.028377 3.699563 6.878079
-4.723816 3.722968 6.815778
-5.095523 3.626118 6.626550
-4.925022 3.748680 6.750845
-4.708529 3.838939 6.812222
-5.066056 3.586486 6.762672
-4.896020 3.712129 6.888668
-4.668527 3.791662 6.934895
-5.126881 3.511881 6.506970
-5.049138 3.699593 6.754265
-4.762647 3.735059 6.715719
-4.663724 3.919036 6.947739
-5.025527 3.681113 6.886693
-4.743701 3.721156 6.856319
-5.089900 3.606344 6.631369
-4.916268 3.725191 6.749916
-4.712896 3.824972 6.830462
-5.074912 3.579867 6.783299
-4.915014 3.713498 6.924674
-4.651862 3.764981 6.920980
-5.050375 3.688392 6.766284
-4.774237 3.732245 6.742712
-4.663438 3.905799 6.958713
-5.026118 3.667723 6.896785
-4.756377 3.718923 6.885370
-5.091949 3.596133 6.642756
-4.926792 3.720504 6.775308
-4.702429 3.804249 6.825870
-5.075542 3.566679 6.793172
-4.935318 3.714399 6.963308
-4.663718 3.760136 6.948689
-5.056437 3.680281 6.783744
-4.791791 3.731934 6.777508
-4.648899 3.878959 6.946989
-5.030737 3.657271 6.912439
-4.780113 3.723169 6.929849
-5.095385 3.585237 6.656301
-4.960737 3.732772 6.831821
-4.705513 3.792462 6.840330
-5.056253 3.537188 6.779568
-4.924585 3.689060 6.961022
-4.648322 3.730532 6.938715
-5.048145 3.657439 6.785299
-4.802059 3.723303 6.804199
-4.639857 3.854324 6.946882
-5.035944 3.643971 6.932485
-4.783750 3.708932 6.948254
-5.085601 3.561825 6.655841
-4.976576 3.728923 6.866868
-4.701448 3.772352 6.847589
-5.065104 3.529790 6.800485
-4.671520 3.734734 6.983525
-5.058287 3.651222 6.808259
-4.828744 3.729876 6.852150
-4.647849 3.846471 6.969072
-5.015048 3.614135 6.912974
-4.810046 3.714879 6.996596
-5.084873 3.547936 6.663826
-4.973155 3.711910 6.871835
-4.707088 3.762557 6.864761
-5.067104 3.517512 6.811116
-5.046659 3.629094 6.801635
-4.833217 3.721292 6.867601
-5.021008 3.606237 6.930067
-5.073046 3.526865 6.656748
-4.993737 3.714276 6.909554
-4.708135 3.750488 6.877302
-5.051972 3.616107 6.821540
-4.847380 3.714673 6.901326
-5.027555 3.593121 6.952229
-5.082689 3.516467 6.682179
-4.998890 3.700397 6.930095
-4.711215 3.735545 6.893842
-5.041709 3.594999 6.816657
-4.864902 3.714371 6.935910
-5.022775 3.576366 6.954306
-5.080574 3.502197 6.687890
-5.008795 3.694550 6.952942
-4.713536 3.724415 6.908227
-5.050484 3.587604 6.837706
-4.871215 3.705455 6.956250
-5.031413 3.567902 6.975801
-5.004612 3.677600 6.958241
-4.714057 3.710326 6.918774
-5.051713 3.571535 6.851961
-4.887420 3.700558 6.990789
-5.022608 3.544213 6.974233
-5.003853 3.659039 6.968585
-4.736811 3.711308 6.965595
-5.034661 3.546266 6.837283
-5.021100 3.530528 6.982265
-5.012990 3.653232 6.991833
-5.027124 3.527504 6.835255
-5.006937 3.505762 6.971680
-5.006904 3.634040 6.992853
-5.033792 3.515905 6.856487
-4.488090 4.579777 7.528755
-4.481891 4.558175 7.532438
-4.437358 4.650290 7.714501
-4.474847 4.517912 7.547786
-4.415648 4.805394 7.921246
-4.450959 4.649084 7.752943
-4.479897 4.507755 7.570470
-4.418128 4.792189 7.940812
-4.443741 4.627316 7.753879
-4.403373 4.759653 7.926598
-4.471992 4.631050 7.592473
-4.394043 4.905451 7.939555
-4.451853 4.615659 7.785362
-4.436436 4.748272 7.784915
-4.401592 4.737165 7.941062
-4.469164 4.608377 7.604667
-4.375351 4.864174 7.923025
-4.445509 4.593650 7.785835
-4.431425 4.728695 7.789928
-4.403006 4.724229 7.957652
-4.471903 4.597328 7.622827
-4.390447 4.866746 7.964969
-4.437203 4.569235 7.785558
-4.430546 4.710896 7.801220
-4.391462 4.693757 7.949920
-4.458802 4.567228 7.612720
-4.383216 4.841470 7.964962
-4.440708 4.552224 7.806444
-4.441796 4.703458 7.838267
-4.386489 4.669290 7.957444
-4.482682 4.572798 7.670405
-4.384584 4.823163 7.985010
-4.443339 4.540114 7.824474
-4.421617 4.666102 7.816998
-4.391987 4.657950 7.980313
-4.469839 4.544055 7.662467
-4.376460 4.798112 7.985223
-4.432853 4.514942 7.819257
-4.432654 4.662425 7.848546
-4.389143 4.640548 7.988400
-4.460084 4.518908 7.657051
-4.430895 4.644702 7.860052
-4.467263 4.510716 7.683672
-4.419395 4.612876 7.856270
-4.427174 4.606545 7.881969
-4.413516 4.576262 7.871924
-4.405274 4.547906 7.873723
-4.424937 4.551277 7.921717
-4.410210 4.521455 7.908622
-4.185311 5.557843 8.873672
-4.095516 5.672218 8.998168
-4.098129 5.547406 8.805820
-4.009276 5.660769 8.935825
-3.967300 5.513303 8.890185
-3.973162 5.508523 8.918839
-3.641168 5.513208 8.786805
-3.924762 5.538893 8.877906
-3.914954 5.511087 8.871256
-4.193746 5.341367 8.581732
-4.104297 5.430453 8.715272
-4.198445 5.330481 8.608507
-3.949306 5.450517 8.691438
-4.076582 5.377213 8.672659
-4.198392 5.314258 8.624926
-3.916289 5.386879 8.632501
-4.062674 5.335011 8.664145
-4.197390 5.290124 8.642428
-3.888542 5.324917 8.592150
-4.175866 5.438148 8.643752
-4.046939 5.298808 8.645381
-4.189775 5.263750 8.640660
-3.883929 5.302585 8.598604
-4.185151 5.434197 8.680027
-4.047799 5.280609 8.662429
-4.054471 5.468198 8.726770
-4.185931 5.240952 8.650050
-3.881094 5.281040 8.609003
-4.160729 5.382835 8.644285
-3.897657 5.482019 8.700356
-4.023822 5.228019 8.630612
-4.230886 5.233029 8.506935
-4.021646 5.401464 8.676004
-4.173585 5.202651 8.641240
-3.863167 5.235619 8.588973
-4.156893 5.356658 8.656041
-3.851809 5.395072 8.617648
-4.243875 5.063863 8.507113
-4.011790 5.195240 8.621442
-4.221230 5.205142 8.502991
-3.993383 5.346185 8.631726
-4.158382 5.165587 8.626662
-3.855097 5.206245 8.585401
-4.145567 5.324060 8.649877
-3.827928 5.343725 8.581596
-4.239993 5.041696 8.512735
-4.000734 5.163162 8.611338
-4.225101 5.192517 8.524700
-3.984178 5.317667 8.628352
-4.156445 5.147710 8.638283
-3.848727 5.181556 8.587552
-4.137994 5.299867 8.648973
-3.818093 5.313982 8.576146
-4.233206 5.015754 8.515653
-3.990551 5.132078 8.606443
-4.232836 5.185192 8.557096
-3.976791 5.290967 8.628883
-4.151690 5.122383 8.643049
-3.837927 5.149208 8.580613
-4.125748 5.266159 8.640634
-3.803886 5.276486 8.561662
-3.989537 5.109604 8.623417
-4.220290 5.147773 8.551034
-3.963072 5.251468 8.618436
-4.139348 5.085701 8.636098
-3.825364 5.110396 8.572018
-4.110706 5.225586 8.628250
-3.787940 5.233523 8.544578
-3.981245 5.081227 8.619032
-4.234770 5.148022 8.594416
-3.953049 5.220469 8.610468
-4.151625 5.083165 8.675639
-3.814656 5.078453 8.561539
-4.110670 5.207868 8.642140
-3.790476 5.219659 8.564468
-3.962841 5.039645 8.595804
-4.228017 5.122655 8.597101
-3.946585 5.194094 8.613700
-4.114707 5.019500 8.614599
-3.802996 5.045117 8.552243
-4.100315 5.176713 8.637452
-3.779795 5.187249 8.557628
-3.953602 5.005798 8.594926
-4.226089 5.099047 8.612091
-3.939223 5.162385 8.617347
-3.794887 5.012476 8.553316
-4.084364 5.135157 8.622698
-3.769997 5.151994 8.555169
-4.217414 5.070510 8.611149
-3.922827 5.123726 8.597896
-4.076860 5.106303 8.621430
-3.759334 5.120528 8.547605
-4.228015 5.066650 8.646596
-3.907406 5.085819 8.577498
-4.067462 5.078162 8.617430
-3.757500 5.099747 8.557732
-4.202970 5.013341 8.614570
-3.900970 5.053824 8.583757
-4.046876 5.030347 8.593230
-3.750341 5.067379 8.561469
-3.894538 5.030281 8.585537
-4.044052 5.009163 8.600694
-3.727476 5.020200 8.524882
-3.886360 5.000386 8.581853
-3.848764 5.317431 8.649205
-3.798429 5.494625 8.843040
-3.821443 5.266453 8.600681
-3.631004 5.484948 8.777457
-3.680574 5.308924 8.579815
-3.442854 5.455089 8.640738
-3.806387 5.227977 8.584503
-3.607794 5.429998 8.740149
-3.665952 5.269266 8.563668
-3.436952 5.426634 8.645433
-3.800955 5.207770 8.586688
-3.520995 5.284826 8.541801
-3.326473 5.498344 8.710960
-3.656412 5.242870 8.554868
-3.397256 5.349847 8.559906
-3.795619 5.185345 8.587013
-3.509278 5.252994 8.528933
-3.332055 5.493752 8.742782
-3.649534 5.217146 8.551723
-3.788448 5.157780 8.588077
-3.501645 5.224135 8.528053
-3.848858 5.398808 8.737571
-3.640851 5.188119 8.548796
-3.776918 5.128351 8.576531
-3.494832 5.199827 8.527093
-3.800141 5.315936 8.640759
-3.583632 5.497554 8.764784
-3.630488 5.159811 8.539257
-3.629949 5.314524 8.553868
-3.404222 5.475629 8.646275
-3.773248 5.109790 8.583008
-3.486397 5.175727 8.520030
-3.786080 5.283542 8.623597
-3.587477 5.489226 8.787169
-3.621820 5.134809 8.533174
-3.623828 5.293020 8.554175
-3.399918 5.457337 8.650822
-3.762694 5.080267 8.571008
-3.478115 5.147629 8.512591
-3.775594 5.253714 8.612034
-3.485478 5.316590 8.549844
-3.618332 5.114085 8.537806
-3.615336 5.264751 8.547137
-3.396393 5.437646 8.658388
-3.752059 5.048060 8.563685
-3.469693 5.117694 8.509356
-3.768471 5.226103 8.613222
-3.465646 5.270327 8.521254
-3.605462 5.078179 8.524441
-3.604081 5.232368 8.539616
-3.742304 5.022049 8.555368
-3.462091 5.093115 8.505593
-3.761352 5.203473 8.611325
-3.456625 5.241647 8.511554
-3.599340 5.056086 8.524701
-3.599777 5.211172 8.541953
-3.738735 5.002363 8.559772
-3.454495 5.067750 8.502256
-3.752511 5.176791 8.606350
-3.452283 5.221050 8.515671
-3.590337 5.185034 8.534467
-3.742815 5.149766 8.598793
-3.442312 5.191806 8.506606
-3.583013 5.003786 8.513079
-3.577569 5.152236 8.519341
-3.732263 5.117464 8.591608
-3.576484 5.133278 8.534350
-3.726128 5.094781 8.589145
-3.562066 5.098983 8.514512
-3.718176 5.069460 8.585885
-3.553492 5.073247 8.508734
-3.706784 5.041052 8.573499
-3.695402 5.006953 8.564405
-4.631506 3.990289 7.006419
-4.648030 3.989995 7.042105
-4.633881 3.959668 7.032820
-4.638043 3.948546 7.049565
-4.633559 3.930630 7.052632
-4.630768 3.914365 7.060219
-4.582017 3.995095 7.200574
-4.637396 3.901824 7.082585
-4.593695 3.991912 7.230888
-4.644474 3.895558 7.103974
-4.602377 3.990960 7.062399
-4.601338 3.983486 7.253551
-4.646160 3.882103 7.116814
-4.605268 3.979728 7.076328
-4.588895 3.955866 7.246772
-4.644597 3.863311 7.128064
-4.600031 3.957857 7.082125
-4.972508 3.710594 7.039155
-4.584485 3.936167 7.250532
-4.638883 3.842892 7.129735
-4.601696 3.943806 7.095472
-4.973057 3.697554 7.048970
-4.722445 3.761789 7.069937
-4.589713 3.926211 7.268894
-4.680085 3.860310 7.029204
-4.833756 3.719307 7.040856
-4.629472 3.820772 7.124864
-4.607469 3.935527 7.116045
-4.992565 3.695034 7.090295
-4.719641 3.741432 7.079335
-4.586916 3.904562 7.279078
-4.674309 3.836038 7.032156
-4.882442 3.738955 7.126027
-4.632843 3.805361 7.143991
-4.616468 3.924257 7.142706
-4.986534 3.676295 7.091005
-4.687367 3.701456 7.039917
-4.574078 3.878997 7.268424
-4.659014 3.811843 7.019790
-4.843041 3.695931 7.077052
-4.619740 3.780211 7.133240
-4.538654 3.990680 7.423828
-4.611230 3.906388 7.146063
-4.987078 3.661767 7.100466
-4.706758 3.702097 7.079118
-4.581711 3.870290 7.290946
-4.660743 3.797873 7.032805
-4.929808 3.747058 7.215275
-4.620647 3.766838 7.146247
-4.533502 3.970788 7.427983
-4.612889 3.892842 7.158940
-4.975023 3.635944 7.095705
-4.749299 3.719321 7.156938
-4.586138 3.856136 7.311844
-4.680444 3.796744 7.076253
-4.594320 3.996403 7.344202
-4.889634 3.699168 7.167744
-4.623563 3.750782 7.162578
-4.535041 3.953013 7.442969
-4.613761 3.877013 7.174052
-4.987396 3.630786 7.122776
-4.733410 3.692427 7.141216
-4.585341 3.840832 7.320407
-4.918508 3.711060 7.046610
-4.652184 3.760148 7.042331
-4.581975 3.971875 7.336031
-4.895289 3.689083 7.185532
-4.626929 3.741028 7.179029
-4.531066 3.935569 7.448214
-4.782022 3.733734 7.041829
-4.616640 3.865112 7.188420
-4.977427 3.608462 7.117977
-4.742708 3.684715 7.165160
-4.578528 3.820020 7.319969
-4.932087 3.706562 7.076025
-4.662657 3.753220 7.068625
-4.587140 3.961098 7.354850
-4.915095 3.688989 7.224656
-4.628611 3.726625 7.191934
-4.524379 3.913398 7.447934
-4.779978 3.717328 7.048610
-4.617075 3.849720 7.199670
-4.982456 3.595153 7.137706
-4.763810 3.683503 7.210512
-4.568517 3.793589 7.317430
-4.959233 3.710289 7.128105
-4.641135 3.719032 7.048545
-4.583150 3.939656 7.362387
-4.925106 3.678654 7.252641
-4.630741 3.710607 7.208571
-4.528630 3.899809 7.469030
-5.009378 3.620197 7.007795
-4.820562 3.731712 7.122246
-4.619164 3.833775 7.216608
-4.976976 3.562743 7.148407
-4.788671 3.673118 7.267734
-4.571737 3.766236 7.342418
-4.962898 3.684700 7.152589
-4.670032 3.714168 7.113800
-4.575585 3.902374 7.370811
-4.931252 3.655079 7.280540
-4.642709 3.690603 7.246739
-4.522309 3.863011 7.478202
-5.003865 3.587996 7.018319
-4.827168 3.708377 7.152978
-4.607038 3.794931 7.218928
-4.968873 3.542583 7.147627
-4.807227 3.672969 7.307563
-4.549715 3.732683 7.318721
-4.962122 3.669058 7.161178
-4.673001 3.700915 7.128552
-4.578361 3.888667 7.386014
-4.932252 3.641276 7.293317
-4.657915 3.687545 7.280543
-5.005766 3.574573 7.030470
-4.828942 3.695704 7.164429
-4.611132 3.783183 7.235460
-4.974666 3.528893 7.166807
-4.825045 3.667986 7.344929
-4.580166 3.738930 7.379996
-4.967085 3.655698 7.181068
-4.681432 3.691043 7.153724
-4.579141 3.871252 7.401124
-4.939176 3.627524 7.315079
-4.668636 3.678092 7.310718
-5.006905 3.557937 7.044743
-4.840139 3.686607 7.194345
-4.604679 3.760026 7.238704
-4.496694 3.946364 7.498261
-4.974438 3.514358 7.177391
-4.839805 3.664629 7.379030
-4.571364 3.717032 7.377320
-4.966309 3.639992 7.189594
-4.698118 3.689258 7.189277
-4.577147 3.854091 7.408108
-4.927325 3.604121 7.308582
-4.682600 3.674087 7.341974
-5.004814 3.542259 7.050825
-4.867409 3.692386 7.245059
-4.612429 3.751507 7.260356
-4.976291 3.501211 7.189094
-4.852838 3.659733 7.408515
-4.578975 3.709473 7.398305
-4.958244 3.620363 7.188634
-4.707781 3.683302 7.215259
-4.591026 3.852003 7.442385
-4.927824 3.589776 7.318569
-4.715425 3.686836 7.404754
-4.988667 3.517301 7.038371
-4.867116 3.678416 7.255634
-4.605978 3.733213 7.260971
-4.883461 3.667378 7.465512
-4.594989 3.706268 7.434734
-4.960073 3.606554 7.199897
-4.726946 3.683232 7.254724
-4.589031 3.834044 7.449692
-4.925754 3.572814 7.325020
-4.728144 3.680546 7.435136
-4.995885 3.507573 7.057966
-4.898190 3.686792 7.312191
-4.608847 3.719600 7.275823
-4.886429 3.650280 7.481643
-4.573777 3.669823 7.411726
-4.964503 3.591833 7.217341
-4.751547 3.684587 7.306080
-4.571948 3.801375 7.435334
-4.924968 3.553952 7.333734
-4.754371 3.681844 7.488432
-4.906045 3.673053 7.334085
-4.604835 3.698376 7.282747
-4.891105 3.638828 7.499290
-4.953839 3.569610 7.212768
-4.752004 3.669566 7.316588
-4.575906 3.788430 7.452313
-4.916979 3.533728 7.333139
-4.753991 3.666599 7.499362
-4.898096 3.652406 7.333442
-4.610138 3.687357 7.301075
-4.595386 3.657556 7.468153
-4.953063 3.554523 7.220762
-4.762427 3.662978 7.342222
-4.922612 3.523730 7.350382
-4.916409 3.652126 7.370153
-4.614223 3.675999 7.317085
-4.958792 3.543423 7.238648
-4.767864 3.651728 7.360452
-4.924392 3.509484 7.362485
-4.916889 3.636946 7.380598
-4.623602 3.668263 7.343945
-4.957238 3.525297 7.249058
-4.806125 3.662988 7.433312
-4.907185 3.610596 7.377308
-4.686116 3.699199 7.455898
-4.949959 3.504774 7.247691
-4.832715 3.667021 7.485005
-4.906392 3.595445 7.384732
-4.911964 3.584685 7.402454
-4.911651 3.566043 7.414903
-4.913402 3.551665 7.427111
-4.901161 3.528494 7.417237
-4.910543 3.518909 7.441379
-5.103044 3.491195 6.635842
-5.125469 3.375673 6.504735
-5.120507 3.495028 6.507257
-5.096732 3.474131 6.636003
-5.124762 3.362471 6.511658
-5.129699 3.487640 6.528158
-5.093215 3.459360 6.640132
-5.127617 3.349411 6.526441
-5.118371 3.464950 6.525031
-5.090375 3.440924 6.648489
-5.129755 3.337030 6.537966
-5.123315 3.454566 6.540435
-5.098032 3.432752 6.666276
-5.124779 3.321844 6.539346
-5.112703 3.434821 6.535101
-5.093120 3.416633 6.668128
-5.131185 3.308413 6.558240
-5.065627 3.499563 6.821467
-5.108451 3.415714 6.541584
-5.085417 3.393491 6.668873
-5.121943 3.289806 6.554361
-5.060781 3.483113 6.823397
-5.111980 3.405553 6.554423
-5.093071 3.385840 6.687275
-5.117684 3.274497 6.558540
-5.058673 3.467252 6.829687
-5.114095 3.394139 6.565074
-5.081857 3.365546 6.682367
-5.079846 3.487590 6.696088
-5.119821 3.259467 6.571184
-5.051092 3.444967 6.829805
-5.116908 3.380323 6.580276
-5.079740 3.348434 6.689705
-5.077004 3.469646 6.704181
-5.119113 3.246377 6.578225
-5.051985 3.433513 6.839513
-5.111956 3.364398 6.582052
-5.091574 3.343445 6.713624
-5.058259 3.444881 6.686608
-5.114141 3.229911 6.580018
-5.055350 3.421371 6.853169
-5.109831 3.349718 6.587787
-5.075507 3.318622 6.701033
-5.072776 3.440731 6.715036
-5.116991 3.215918 6.594847
-5.050509 3.400949 6.856881
-5.105581 3.331140 6.593697
-5.075459 3.302521 6.712399
-5.018250 3.496658 6.997546
-5.069936 3.422741 6.723000
-5.105632 3.183710 6.595078
-5.046927 3.371560 6.870697
-5.101333 3.302372 6.604667
-5.037737 3.491046 6.879712
-5.086564 3.282645 6.744036
-5.065711 3.393411 6.734313
-5.112027 3.174390 6.611541
-5.036622 3.350096 6.865443
-5.102731 3.289999 6.616558
-5.034892 3.475276 6.886437
-5.067719 3.256769 6.726165
-5.065641 3.379845 6.744563
-5.103513 3.153154 6.611403
-5.037252 3.333348 6.875474
-5.103430 3.273902 6.627408
-5.044649 3.464165 6.909040
-5.080214 3.249691 6.754208
-5.049686 3.352271 6.733305
-5.107065 3.141987 6.624109
-5.035778 3.318518 6.883731
-5.089307 3.252062 6.618568
-5.032303 3.441763 6.902559
-5.064164 3.225046 6.741261
-5.062075 3.347026 6.760252
-5.092164 3.119977 6.612312
-5.041872 3.310324 6.900319
-5.094238 3.242508 6.633006
-5.030203 3.427067 6.908079
-5.066230 3.213391 6.751975
-5.123167 3.153769 6.502228
-5.061347 3.333552 6.767464
-5.101393 3.112290 6.632409
-5.035670 3.291615 6.900535
-5.099167 3.233269 6.646746
-5.043025 3.421273 6.934931
-5.134939 3.025816 6.505548
-5.065509 3.198622 6.759537
-5.121034 3.139295 6.507519
-5.057853 3.316921 6.771554
-5.103525 3.096967 6.644681
-5.045858 3.281042 6.924663
-5.105505 3.220672 6.664887
-5.026004 3.392315 6.921649
-5.129911 3.006506 6.508318
-5.067573 3.182996 6.772052
-5.117465 3.120788 6.512443
-5.059893 3.302329 6.784365
-5.097142 3.078963 6.644526
-5.047851 3.268348 6.935843
-5.083642 3.192659 6.644572
-5.028584 3.380155 6.935696
-5.064066 3.167073 6.775482
-5.119640 3.108318 6.523500
-5.045991 3.280174 6.774377
-5.097855 3.067575 6.653075
-5.030728 3.243154 6.920465
-5.091390 3.184767 6.662647
-5.016995 3.359975 6.926861
-5.061953 3.152679 6.780451
-5.131866 3.103857 6.546574
-5.061858 3.277535 6.803959
-5.084382 3.045923 6.643191
-5.046372 3.239316 6.950547
-5.098422 3.176380 6.681465
-5.018964 3.346651 6.938524
-5.061232 3.137844 6.787880
-5.108937 3.076631 6.526589
-5.062512 3.263555 6.813541
-5.092186 3.033956 6.662796
-5.036705 3.215665 6.948759
-5.090662 3.154770 6.680840
-5.024998 3.333341 6.957131
-5.063964 3.123179 6.802582
-5.113982 3.063954 6.542155
-5.046578 3.236156 6.801789
-5.099989 3.024484 6.681217
-5.020957 3.191473 6.935093
-5.074451 3.131124 6.667424
-5.010703 3.309064 6.945997
-5.047936 3.100439 6.787874
-5.107545 3.046185 6.541976
-5.045852 3.221276 6.809402
-5.087939 3.004376 6.672774
-5.022950 3.179379 6.945798
-5.083602 3.123960 6.687296
-5.015380 3.298812 6.960721
-5.049999 3.088613 6.798370
-5.111154 3.035730 6.554161
-5.050653 3.211250 6.823897
-5.015393 3.157480 6.944279
-5.078664 3.104136 6.690251
-5.015250 3.281995 6.972070
-5.052061 3.072163 6.810926
-5.120499 3.026507 6.575228
-5.043673 3.190353 6.825581
-5.029661 3.152459 6.972403
-5.082178 3.093749 6.702901
-5.006382 3.261380 6.968367
-5.058296 3.062170 6.827355
-5.102588 3.001879 6.560054
-5.041564 3.174538 6.831205
-5.034378 3.141981 6.986862
-5.089202 3.085763 6.721308
-5.013763 3.252808 6.986830
-5.057574 3.048540 6.833995
-5.039457 3.160032 6.836181
-5.017276 3.116400 6.971318
-5.080042 3.065899 6.717321
-5.007605 3.233976 6.986852
-5.049899 3.029358 6.831703
-5.045635 3.151094 6.852786
-5.068069 3.042415 6.710401
-5.007474 3.218066 6.998044
-5.036666 3.004210 6.822918
-5.052464 3.138197 6.873534
-5.015804 3.083156 6.987168
-5.084247 3.037943 6.740183
-5.037932 3.115179 6.861659
-5.019156 3.071732 6.999603
-5.089163 3.027883 6.754317
-5.037205 3.101484 6.868406
-5.075786 3.002911 6.745658
-5.037859 3.084653 6.878816
-5.001960 3.029354 6.994530
